-3328.000000 -3356.000000 690.000000
-3328.000000 -3356.000000 688.000000
-3328.000000 -3356.000000 686.000000
-3328.000000 -3356.000000 684.000000
-3328.000000 -3356.000000 682.000000
-3328.000000 -3356.000000 680.000000
-3328.000000 -3356.000000 678.000000
-3328.000000 -3356.000000 676.000000
-3328.000000 -3356.000000 674.000000
-3328.000000 -3356.000000 672.000000
-3328.000000 -3356.000000 670.000000
-3328.000000 -3356.000000 668.000000
-3328.000000 -3356.000000 666.000000
-3328.000000 -3356.000000 664.000000
-3328.000000 -3356.000000 662.000000
-3328.000000 -3356.000000 660.000000
-3328.000000 -3356.000000 658.000000
-3328.000000 -3356.000000 656.000000
-3328.000000 -3356.000000 654.000000
-3328.000000 -3356.000000 652.000000
-3328.000000 -3356.000000 650.000000
-3328.000000 -3356.000000 648.000000
-3328.000000 -3356.000000 646.000000
-3328.000000 -3356.000000 644.000000
-3328.000000 -3356.000000 642.000000
-3328.000000 -3356.000000 640.000000
-3328.000000 -3356.000000 638.000000
-3328.000000 -3356.000000 636.000000
-3328.000000 -3356.000000 634.000000
-3328.000000 -3356.000000 632.000000
-3328.000000 -3356.000000 630.000000
-3328.000000 -3356.000000 628.000000
-3328.000000 -3356.000000 626.000000
-3328.000000 -3356.000000 624.000000
-3328.000000 -3356.000000 622.000000
-3328.000000 -3356.000000 620.000000
-3328.000000 -3356.000000 618.000000
-3328.000000 -3356.000000 616.000000
-3328.000000 -3356.000000 614.000000
-3328.000000 -3356.000000 612.000000
-3328.000000 -3356.000000 610.000000
-3328.000000 -3356.000000 608.000000
-3328.000000 -3356.000000 606.000000
-3328.000000 -3356.000000 604.000000
-3328.000000 -3356.000000 602.000000
-3328.000000 -3356.000000 600.000000
-3328.000000 -3356.000000 598.000000
-3328.000000 -3356.000000 596.000000
-3328.000000 -3356.000000 594.000000
-3328.000000 -3356.000000 592.000000
-3328.000000 -3356.000000 590.000000
-3328.000000 -3356.000000 588.000000
-3328.000000 -3356.000000 586.000000
-3328.000000 -3356.000000 584.000000
-3328.000000 -3356.000000 582.000000
-3328.000000 -3356.000000 580.000000
-3328.000000 -3356.000000 578.000000
-3328.000000 -3356.000000 576.000000
-3328.000000 -3356.000000 574.000000
-3328.000000 -3356.000000 572.000000
-3328.000000 -3356.000000 570.000000
-3328.000000 -3356.000000 568.000000
-3328.000000 -3356.000000 566.000000
-3328.000000 -3356.000000 564.000000
-3328.000000 -3356.000000 562.000000
-3328.000000 -3356.000000 560.000000
-3328.000000 -3356.000000 558.000000
-3328.000000 -3356.000000 556.000000
-3328.000000 -3356.000000 554.000000
-3328.000000 -3356.000000 552.000000
-3328.000000 -3356.000000 550.000000
-3328.000000 -3356.000000 548.000000
-3328.000000 -3356.000000 546.000000
-3328.000000 -3356.000000 544.000000
-3328.000000 -3356.000000 542.000000
-3328.000000 -3356.000000 540.000000
-3328.000000 -3356.000000 538.000000
-3328.000000 -3356.000000 536.000000
-3328.000000 -3356.000000 534.000000
-3328.000000 -3356.000000 532.000000
-3328.000000 -3356.000000 530.000000
-3328.000000 -3356.000000 528.000000
-3328.000000 -3356.000000 526.000000
-3328.000000 -3356.000000 524.000000
-1832.000000 -3328.000000 1052.000000
-1832.000000 -3328.000000 1052.000000
-1833.999650 -3328.037427 1052.000000
-1835.999300 -3328.074853 1052.000000
-1837.998949 -3328.112280 1052.000000
-1839.998599 -3328.149706 1052.000000
-1841.998249 -3328.187133 1052.000000
-1843.997899 -3328.224560 1052.000000
-1845.997548 -3328.261986 1052.000000
-1847.997198 -3328.299413 1052.000000
-1849.996848 -3328.336839 1052.000000
-1851.996498 -3328.374266 1052.000000
-1853.996148 -3328.411693 1052.000000
-1855.995797 -3328.449119 1052.000000
-1857.995447 -3328.486546 1052.000000
-1859.995097 -3328.523972 1052.000000
-1861.994747 -3328.561399 1052.000000
-1863.994397 -3328.598826 1052.000000
-1865.994046 -3328.636252 1052.000000
-1867.993696 -3328.673679 1052.000000
-1869.993346 -3328.711105 1052.000000
-1871.992996 -3328.748532 1052.000000
-1873.992645 -3328.785959 1052.000000
-1875.992295 -3328.823385 1052.000000
-1877.991945 -3328.860812 1052.000000
-1879.991595 -3328.898238 1052.000000
-1881.991245 -3328.935665 1052.000000
-1883.990894 -3328.973092 1052.000000
-1885.990544 -3329.010518 1052.000000
-1887.990194 -3329.047945 1052.000000
-1889.989844 -3329.085371 1052.000000
-1891.989493 -3329.122798 1052.000000
-1893.989143 -3329.160225 1052.000000
-1895.988793 -3329.197651 1052.000000
-1897.988443 -3329.235078 1052.000000
-1899.988093 -3329.272504 1052.000000
-1901.987742 -3329.309931 1052.000000
-1903.987392 -3329.347358 1052.000000
-1905.987042 -3329.384784 1052.000000
-1907.986692 -3329.422211 1052.000000
-1909.986341 -3329.459637 1052.000000
-1911.985991 -3329.497064 1052.000000
-1913.985641 -3329.534491 1052.000000
-1915.985291 -3329.571917 1052.000000
-1917.984941 -3329.609344 1052.000000
-1919.984590 -3329.646770 1052.000000
-1921.984240 -3329.684197 1052.000000
-1923.983890 -3329.721624 1052.000000
-1925.983540 -3329.759050 1052.000000
-1927.983190 -3329.796477 1052.000000
-1929.982839 -3329.833903 1052.000000
-1931.982489 -3329.871330 1052.000000
-1933.982139 -3329.908757 1052.000000
-1935.981789 -3329.946183 1052.000000
-1937.981438 -3329.983610 1052.000000
-1939.981088 -3330.021036 1052.000000
-1941.980738 -3330.058463 1052.000000
-1943.980388 -3330.095890 1052.000000
-1945.980038 -3330.133316 1052.000000
-1947.979687 -3330.170743 1052.000000
-1949.979337 -3330.208169 1052.000000
-1951.978987 -3330.245596 1052.000000
-1953.978637 -3330.283023 1052.000000
-1955.978286 -3330.320449 1052.000000
-1957.977936 -3330.357876 1052.000000
-1959.977586 -3330.395302 1052.000000
-1961.977236 -3330.432729 1052.000000
-1963.976886 -3330.470156 1052.000000
-1965.976535 -3330.507582 1052.000000
-1967.976185 -3330.545009 1052.000000
-1969.975835 -3330.582435 1052.000000
-1971.975485 -3330.619862 1052.000000
-1973.975135 -3330.657289 1052.000000
-1975.974784 -3330.694715 1052.000000
-1977.974434 -3330.732142 1052.000000
-1979.974084 -3330.769568 1052.000000
-1981.973734 -3330.806995 1052.000000
-1983.973383 -3330.844422 1052.000000
-1985.973033 -3330.881848 1052.000000
-1987.972683 -3330.919275 1052.000000
-1989.972333 -3330.956701 1052.000000
-1991.971983 -3330.994128 1052.000000
-1993.971632 -3331.031555 1052.000000
-1995.971282 -3331.068981 1052.000000
-1997.970932 -3331.106408 1052.000000
-1999.970582 -3331.143834 1052.000000
-2001.970231 -3331.181261 1052.000000
-2003.969881 -3331.218688 1052.000000
-2005.969531 -3331.256114 1052.000000
-2007.969181 -3331.293541 1052.000000
-2009.968831 -3331.330967 1052.000000
-2011.968480 -3331.368394 1052.000000
-2013.968130 -3331.405821 1052.000000
-2015.967780 -3331.443247 1052.000000
-2017.967430 -3331.480674 1052.000000
-2019.967079 -3331.518100 1052.000000
-2021.966729 -3331.555527 1052.000000
-2023.966379 -3331.592954 1052.000000
-2025.966029 -3331.630380 1052.000000
-2027.965679 -3331.667807 1052.000000
-2029.965328 -3331.705233 1052.000000
-2031.964978 -3331.742660 1052.000000
-2033.964628 -3331.780087 1052.000000
-2035.964278 -3331.817513 1052.000000
-2037.963928 -3331.854940 1052.000000
-2039.963577 -3331.892366 1052.000000
-2041.963227 -3331.929793 1052.000000
-2043.962877 -3331.967220 1052.000000
-2045.962527 -3332.004646 1052.000000
-2047.962176 -3332.042073 1052.000000
-2049.961826 -3332.079499 1052.000000
-2051.961476 -3332.116926 1052.000000
-2053.961126 -3332.154353 1052.000000
-2055.960776 -3332.191779 1052.000000
-2057.960425 -3332.229206 1052.000000
-2059.960075 -3332.266632 1052.000000
-2061.959725 -3332.304059 1052.000000
-2063.959375 -3332.341486 1052.000000
-2065.959024 -3332.378912 1052.000000
-2067.958674 -3332.416339 1052.000000
-2069.958324 -3332.453765 1052.000000
-2071.957974 -3332.491192 1052.000000
-2073.957624 -3332.528619 1052.000000
-2075.957273 -3332.566045 1052.000000
-2077.956923 -3332.603472 1052.000000
-2079.956573 -3332.640898 1052.000000
-2081.956223 -3332.678325 1052.000000
-2083.955872 -3332.715752 1052.000000
-2085.955522 -3332.753178 1052.000000
-2087.955172 -3332.790605 1052.000000
-2089.954822 -3332.828031 1052.000000
-2091.954472 -3332.865458 1052.000000
-2093.954121 -3332.902885 1052.000000
-2095.953771 -3332.940311 1052.000000
-2097.953421 -3332.977738 1052.000000
-2099.953071 -3333.015164 1052.000000
-2101.952721 -3333.052591 1052.000000
-2103.952370 -3333.090018 1052.000000
-2105.952020 -3333.127444 1052.000000
-2107.951670 -3333.164871 1052.000000
-2109.951320 -3333.202297 1052.000000
-2111.950969 -3333.239724 1052.000000
-2113.950619 -3333.277151 1052.000000
-2115.950269 -3333.314577 1052.000000
-2117.949919 -3333.352004 1052.000000
-2119.949569 -3333.389430 1052.000000
-2121.949218 -3333.426857 1052.000000
-2123.948868 -3333.464284 1052.000000
-2125.948518 -3333.501710 1052.000000
-2127.948168 -3333.539137 1052.000000
-2129.947817 -3333.576563 1052.000000
-2131.947467 -3333.613990 1052.000000
-2133.947117 -3333.651417 1052.000000
-2135.946767 -3333.688843 1052.000000
-2137.946417 -3333.726270 1052.000000
-2139.946066 -3333.763696 1052.000000
-2141.945716 -3333.801123 1052.000000
-2143.945366 -3333.838550 1052.000000
-2145.945016 -3333.875976 1052.000000
-2147.944666 -3333.913403 1052.000000
-2149.944315 -3333.950829 1052.000000
-2151.943965 -3333.988256 1052.000000
-2153.943615 -3334.025683 1052.000000
-2155.943265 -3334.063109 1052.000000
-2157.942914 -3334.100536 1052.000000
-2159.942564 -3334.137962 1052.000000
-2161.942214 -3334.175389 1052.000000
-2163.941864 -3334.212816 1052.000000
-2165.941514 -3334.250242 1052.000000
-2167.941163 -3334.287669 1052.000000
-2169.940813 -3334.325095 1052.000000
-2171.940463 -3334.362522 1052.000000
-2173.940113 -3334.399949 1052.000000
-2175.939762 -3334.437375 1052.000000
-2177.939412 -3334.474802 1052.000000
-2179.939062 -3334.512228 1052.000000
-2181.938712 -3334.549655 1052.000000
-2183.938362 -3334.587082 1052.000000
-2185.938011 -3334.624508 1052.000000
-2187.937661 -3334.661935 1052.000000
-2189.937311 -3334.699361 1052.000000
-2191.936961 -3334.736788 1052.000000
-2193.936610 -3334.774215 1052.000000
-2195.936260 -3334.811641 1052.000000
-2197.935910 -3334.849068 1052.000000
-2199.935560 -3334.886494 1052.000000
-2201.935210 -3334.923921 1052.000000
-2203.934859 -3334.961348 1052.000000
-2205.934509 -3334.998774 1052.000000
-2207.934159 -3335.036201 1052.000000
-2209.933809 -3335.073627 1052.000000
-2211.933459 -3335.111054 1052.000000
-2213.933108 -3335.148481 1052.000000
-2215.932758 -3335.185907 1052.000000
-2217.932408 -3335.223334 1052.000000
-2219.932058 -3335.260760 1052.000000
-2221.931707 -3335.298187 1052.000000
-2223.931357 -3335.335614 1052.000000
-2225.931007 -3335.373040 1052.000000
-2227.930657 -3335.410467 1052.000000
-2229.930307 -3335.447893 1052.000000
-2231.929956 -3335.485320 1052.000000
-2233.929606 -3335.522747 1052.000000
-2235.929256 -3335.560173 1052.000000
-2237.928906 -3335.597600 1052.000000
-2239.928555 -3335.635026 1052.000000
-2241.928205 -3335.672453 1052.000000
-2243.927855 -3335.709880 1052.000000
-2245.927505 -3335.747306 1052.000000
-2247.927155 -3335.784733 1052.000000
-2249.926804 -3335.822159 1052.000000
-2251.926454 -3335.859586 1052.000000
-2253.926104 -3335.897013 1052.000000
-2255.925754 -3335.934439 1052.000000
-2257.925404 -3335.971866 1052.000000
-2259.925053 -3336.009292 1052.000000
-2261.924703 -3336.046719 1052.000000
-2263.924353 -3336.084146 1052.000000
-2265.924003 -3336.121572 1052.000000
-2267.923652 -3336.158999 1052.000000
-2269.923302 -3336.196425 1052.000000
-2271.922952 -3336.233852 1052.000000
-2273.922602 -3336.271279 1052.000000
-2275.922252 -3336.308705 1052.000000
-2277.921901 -3336.346132 1052.000000
-2279.921551 -3336.383558 1052.000000
-2281.921201 -3336.420985 1052.000000
-2283.920851 -3336.458412 1052.000000
-2285.920500 -3336.495838 1052.000000
-2287.920150 -3336.533265 1052.000000
-2289.919800 -3336.570691 1052.000000
-2291.919450 -3336.608118 1052.000000
-2293.919100 -3336.645545 1052.000000
-2295.918749 -3336.682971 1052.000000
-2297.918399 -3336.720398 1052.000000
-2299.918049 -3336.757824 1052.000000
-2301.917699 -3336.795251 1052.000000
-2303.917348 -3336.832678 1052.000000
-2305.916998 -3336.870104 1052.000000
-2307.916648 -3336.907531 1052.000000
-2309.916298 -3336.944957 1052.000000
-2311.915948 -3336.982384 1052.000000
-2313.915597 -3337.019811 1052.000000
-2315.915247 -3337.057237 1052.000000
-2317.914897 -3337.094664 1052.000000
-2319.914547 -3337.132090 1052.000000
-2321.914197 -3337.169517 1052.000000
-2323.913846 -3337.206944 1052.000000
-2325.913496 -3337.244370 1052.000000
-2327.913146 -3337.281797 1052.000000
-2329.912796 -3337.319223 1052.000000
-2331.912445 -3337.356650 1052.000000
-2333.912095 -3337.394077 1052.000000
-2335.911745 -3337.431503 1052.000000
-2337.911395 -3337.468930 1052.000000
-2339.911045 -3337.506356 1052.000000
-2341.910694 -3337.543783 1052.000000
-2343.910344 -3337.581210 1052.000000
-2345.909994 -3337.618636 1052.000000
-2347.909644 -3337.656063 1052.000000
-2349.909293 -3337.693489 1052.000000
-2351.908943 -3337.730916 1052.000000
-2353.908593 -3337.768343 1052.000000
-2355.908243 -3337.805769 1052.000000
-2357.907893 -3337.843196 1052.000000
-2359.907542 -3337.880622 1052.000000
-2361.907192 -3337.918049 1052.000000
-2363.906842 -3337.955476 1052.000000
-2365.906492 -3337.992902 1052.000000
-2367.906142 -3338.030329 1052.000000
-2369.905791 -3338.067755 1052.000000
-2371.905441 -3338.105182 1052.000000
-2373.905091 -3338.142609 1052.000000
-2375.904741 -3338.180035 1052.000000
-2377.904390 -3338.217462 1052.000000
-2379.904040 -3338.254888 1052.000000
-2381.903690 -3338.292315 1052.000000
-2383.903340 -3338.329742 1052.000000
-2385.902990 -3338.367168 1052.000000
-2387.902639 -3338.404595 1052.000000
-2389.902289 -3338.442021 1052.000000
-2391.901939 -3338.479448 1052.000000
-2393.901589 -3338.516875 1052.000000
-2395.901238 -3338.554301 1052.000000
-2397.900888 -3338.591728 1052.000000
-2399.900538 -3338.629154 1052.000000
-2401.900188 -3338.666581 1052.000000
-2403.899838 -3338.704008 1052.000000
-2405.899487 -3338.741434 1052.000000
-2407.899137 -3338.778861 1052.000000
-2409.898787 -3338.816287 1052.000000
-2411.898437 -3338.853714 1052.000000
-2413.898086 -3338.891141 1052.000000
-2415.897736 -3338.928567 1052.000000
-2417.897386 -3338.965994 1052.000000
-2419.897036 -3339.003420 1052.000000
-2421.896686 -3339.040847 1052.000000
-2423.896335 -3339.078274 1052.000000
-2425.895985 -3339.115700 1052.000000
-2427.895635 -3339.153127 1052.000000
-2429.895285 -3339.190553 1052.000000
-2431.894935 -3339.227980 1052.000000
-2433.894584 -3339.265407 1052.000000
-2435.894234 -3339.302833 1052.000000
-2437.893884 -3339.340260 1052.000000
-2439.893534 -3339.377686 1052.000000
-2441.893183 -3339.415113 1052.000000
-2443.892833 -3339.452540 1052.000000
-2445.892483 -3339.489966 1052.000000
-2447.892133 -3339.527393 1052.000000
-2449.891783 -3339.564819 1052.000000
-2451.891432 -3339.602246 1052.000000
-2453.891082 -3339.639673 1052.000000
-2455.890732 -3339.677099 1052.000000
-2457.890382 -3339.714526 1052.000000
-2459.890031 -3339.751952 1052.000000
-2461.889681 -3339.789379 1052.000000
-2463.889331 -3339.826806 1052.000000
-2465.888981 -3339.864232 1052.000000
-2467.888631 -3339.901659 1052.000000
-2469.888280 -3339.939085 1052.000000
-2471.887930 -3339.976512 1052.000000
-2473.887580 -3340.013939 1052.000000
-2475.887230 -3340.051365 1052.000000
-2477.886880 -3340.088792 1052.000000
-2479.886529 -3340.126218 1052.000000
-2481.886179 -3340.163645 1052.000000
-2483.885829 -3340.201072 1052.000000
-2485.885479 -3340.238498 1052.000000
-2487.885128 -3340.275925 1052.000000
-2489.884778 -3340.313351 1052.000000
-2491.884428 -3340.350778 1052.000000
-2493.884078 -3340.388205 1052.000000
-2495.883728 -3340.425631 1052.000000
-2497.883377 -3340.463058 1052.000000
-2499.883027 -3340.500484 1052.000000
-2501.882677 -3340.537911 1052.000000
-2503.882327 -3340.575338 1052.000000
-2505.881976 -3340.612764 1052.000000
-2507.881626 -3340.650191 1052.000000
-2509.881276 -3340.687617 1052.000000
-2511.880926 -3340.725044 1052.000000
-2513.880576 -3340.762471 1052.000000
-2515.880225 -3340.799897 1052.000000
-2517.879875 -3340.837324 1052.000000
-2519.879525 -3340.874750 1052.000000
-2521.879175 -3340.912177 1052.000000
-2523.878824 -3340.949604 1052.000000
-2525.878474 -3340.987030 1052.000000
-2527.878124 -3341.024457 1052.000000
-2529.877774 -3341.061883 1052.000000
-2531.877424 -3341.099310 1052.000000
-2533.877073 -3341.136737 1052.000000
-2535.876723 -3341.174163 1052.000000
-2537.876373 -3341.211590 1052.000000
-2539.876023 -3341.249016 1052.000000
-2541.875673 -3341.286443 1052.000000
-2543.875322 -3341.323870 1052.000000
-2545.874972 -3341.361296 1052.000000
-2547.874622 -3341.398723 1052.000000
-2549.874272 -3341.436149 1052.000000
-2551.873921 -3341.473576 1052.000000
-2553.873571 -3341.511003 1052.000000
-2555.873221 -3341.548429 1052.000000
-2557.872871 -3341.585856 1052.000000
-2559.872521 -3341.623282 1052.000000
-2561.872170 -3341.660709 1052.000000
-2563.871820 -3341.698136 1052.000000
-2565.871470 -3341.735562 1052.000000
-2567.871120 -3341.772989 1052.000000
-2569.870769 -3341.810415 1052.000000
-2571.870419 -3341.847842 1052.000000
-2573.870069 -3341.885269 1052.000000
-2575.869719 -3341.922695 1052.000000
-2577.869369 -3341.960122 1052.000000
-2579.869018 -3341.997548 1052.000000
-2581.868668 -3342.034975 1052.000000
-2583.868318 -3342.072402 1052.000000
-2585.867968 -3342.109828 1052.000000
-2587.867617 -3342.147255 1052.000000
-2589.867267 -3342.184681 1052.000000
-2591.866917 -3342.222108 1052.000000
-2593.866567 -3342.259535 1052.000000
-2595.866217 -3342.296961 1052.000000
-2597.865866 -3342.334388 1052.000000
-2599.865516 -3342.371814 1052.000000
-2601.865166 -3342.409241 1052.000000
-2603.864816 -3342.446668 1052.000000
-2605.864466 -3342.484094 1052.000000
-2607.864115 -3342.521521 1052.000000
-2609.863765 -3342.558947 1052.000000
-2611.863415 -3342.596374 1052.000000
-2613.863065 -3342.633801 1052.000000
-2615.862714 -3342.671227 1052.000000
-2617.862364 -3342.708654 1052.000000
-2619.862014 -3342.746080 1052.000000
-2621.861664 -3342.783507 1052.000000
-2623.861314 -3342.820934 1052.000000
-2625.860963 -3342.858360 1052.000000
-2627.860613 -3342.895787 1052.000000
-2629.860263 -3342.933213 1052.000000
-2631.859913 -3342.970640 1052.000000
-2633.859562 -3343.008067 1052.000000
-2635.859212 -3343.045493 1052.000000
-2637.858862 -3343.082920 1052.000000
-2639.858512 -3343.120346 1052.000000
-2641.858162 -3343.157773 1052.000000
-2643.857811 -3343.195200 1052.000000
-2645.857461 -3343.232626 1052.000000
-2647.857111 -3343.270053 1052.000000
-2649.856761 -3343.307479 1052.000000
-2651.856411 -3343.344906 1052.000000
-2653.856060 -3343.382333 1052.000000
-2655.855710 -3343.419759 1052.000000
-2657.855360 -3343.457186 1052.000000
-2659.855010 -3343.494612 1052.000000
-2661.854659 -3343.532039 1052.000000
-2663.854309 -3343.569466 1052.000000
-2665.853959 -3343.606892 1052.000000
-2667.853609 -3343.644319 1052.000000
-2669.853259 -3343.681745 1052.000000
-2671.852908 -3343.719172 1052.000000
-2673.852558 -3343.756599 1052.000000
-2675.852208 -3343.794025 1052.000000
-2677.851858 -3343.831452 1052.000000
-2679.851507 -3343.868878 1052.000000
-2681.851157 -3343.906305 1052.000000
-2683.850807 -3343.943732 1052.000000
-2685.850457 -3343.981158 1052.000000
-2687.850107 -3344.018585 1052.000000
-2689.849756 -3344.056011 1052.000000
-2691.849406 -3344.093438 1052.000000
-2693.849056 -3344.130865 1052.000000
-2695.848706 -3344.168291 1052.000000
-2697.848355 -3344.205718 1052.000000
-2699.848005 -3344.243144 1052.000000
-2701.847655 -3344.280571 1052.000000
-2703.847305 -3344.317998 1052.000000
-2705.846955 -3344.355424 1052.000000
-2707.846604 -3344.392851 1052.000000
-2709.846254 -3344.430277 1052.000000
-2711.845904 -3344.467704 1052.000000
-2713.845554 -3344.505131 1052.000000
-2715.845204 -3344.542557 1052.000000
-2717.844853 -3344.579984 1052.000000
-2719.844503 -3344.617410 1052.000000
-2721.844153 -3344.654837 1052.000000
-2723.843803 -3344.692264 1052.000000
-2725.843452 -3344.729690 1052.000000
-2727.843102 -3344.767117 1052.000000
-2729.842752 -3344.804543 1052.000000
-2731.842402 -3344.841970 1052.000000
-2733.842052 -3344.879397 1052.000000
-2735.841701 -3344.916823 1052.000000
-2737.841351 -3344.954250 1052.000000
-2739.841001 -3344.991676 1052.000000
-2741.840651 -3345.029103 1052.000000
-2743.840300 -3345.066530 1052.000000
-2745.839950 -3345.103956 1052.000000
-2747.839600 -3345.141383 1052.000000
-2749.839250 -3345.178809 1052.000000
-2751.838900 -3345.216236 1052.000000
-2753.838549 -3345.253663 1052.000000
-2755.838199 -3345.291089 1052.000000
-2757.837849 -3345.328516 1052.000000
-2759.837499 -3345.365942 1052.000000
-2761.837149 -3345.403369 1052.000000
-2763.836798 -3345.440796 1052.000000
-2765.836448 -3345.478222 1052.000000
-2767.836098 -3345.515649 1052.000000
-2769.835748 -3345.553075 1052.000000
-2771.835397 -3345.590502 1052.000000
-2773.835047 -3345.627929 1052.000000
-2775.834697 -3345.665355 1052.000000
-2777.834347 -3345.702782 1052.000000
-2779.833997 -3345.740208 1052.000000
-2781.833646 -3345.777635 1052.000000
-2783.833296 -3345.815062 1052.000000
-2785.832946 -3345.852488 1052.000000
-2787.832596 -3345.889915 1052.000000
-2789.832245 -3345.927341 1052.000000
-2791.831895 -3345.964768 1052.000000
-2793.831545 -3346.002195 1052.000000
-2795.831195 -3346.039621 1052.000000
-2797.830845 -3346.077048 1052.000000
-2799.830494 -3346.114474 1052.000000
-2801.830144 -3346.151901 1052.000000
-2803.829794 -3346.189328 1052.000000
-2805.829444 -3346.226754 1052.000000
-2807.829093 -3346.264181 1052.000000
-2809.828743 -3346.301607 1052.000000
-2811.828393 -3346.339034 1052.000000
-2813.828043 -3346.376461 1052.000000
-2815.827693 -3346.413887 1052.000000
-2817.827342 -3346.451314 1052.000000
-2819.826992 -3346.488740 1052.000000
-2821.826642 -3346.526167 1052.000000
-2823.826292 -3346.563594 1052.000000
-2825.825942 -3346.601020 1052.000000
-2827.825591 -3346.638447 1052.000000
-2829.825241 -3346.675873 1052.000000
-2831.824891 -3346.713300 1052.000000
-2833.824541 -3346.750727 1052.000000
-2835.824190 -3346.788153 1052.000000
-2837.823840 -3346.825580 1052.000000
-2839.823490 -3346.863006 1052.000000
-2841.823140 -3346.900433 1052.000000
-2843.822790 -3346.937860 1052.000000
-2845.822439 -3346.975286 1052.000000
-2847.822089 -3347.012713 1052.000000
-2849.821739 -3347.050139 1052.000000
-2851.821389 -3347.087566 1052.000000
-2853.821038 -3347.124993 1052.000000
-2855.820688 -3347.162419 1052.000000
-2857.820338 -3347.199846 1052.000000
-2859.819988 -3347.237272 1052.000000
-2861.819638 -3347.274699 1052.000000
-2863.819287 -3347.312126 1052.000000
-2865.818937 -3347.349552 1052.000000
-2867.818587 -3347.386979 1052.000000
-2869.818237 -3347.424406 1052.000000
-2871.817887 -3347.461832 1052.000000
-2873.817536 -3347.499259 1052.000000
-2875.817186 -3347.536685 1052.000000
-2877.816836 -3347.574112 1052.000000
-2879.816486 -3347.611539 1052.000000
-2881.816135 -3347.648965 1052.000000
-2883.815785 -3347.686392 1052.000000
-2885.815435 -3347.723818 1052.000000
-2887.815085 -3347.761245 1052.000000
-2889.814735 -3347.798672 1052.000000
-2891.814384 -3347.836098 1052.000000
-2893.814034 -3347.873525 1052.000000
-2895.813684 -3347.910951 1052.000000
-2897.813334 -3347.948378 1052.000000
-2899.812983 -3347.985805 1052.000000
-2901.812633 -3348.023231 1052.000000
-2903.812283 -3348.060658 1052.000000
-2905.811933 -3348.098084 1052.000000
-2907.811583 -3348.135511 1052.000000
-2909.811232 -3348.172938 1052.000000
-2911.810882 -3348.210364 1052.000000
-2913.810532 -3348.247791 1052.000000
-2915.810182 -3348.285217 1052.000000
-2917.809831 -3348.322644 1052.000000
-2919.809481 -3348.360071 1052.000000
-2921.809131 -3348.397497 1052.000000
-2923.808781 -3348.434924 1052.000000
-2925.808431 -3348.472350 1052.000000
-2927.808080 -3348.509777 1052.000000
-2929.807730 -3348.547204 1052.000000
-2931.807380 -3348.584630 1052.000000
-2933.807030 -3348.622057 1052.000000
-2935.806680 -3348.659483 1052.000000
-2937.806329 -3348.696910 1052.000000
-2939.805979 -3348.734337 1052.000000
-2941.805629 -3348.771763 1052.000000
-2943.805279 -3348.809190 1052.000000
-2945.804928 -3348.846616 1052.000000
-2947.804578 -3348.884043 1052.000000
-2949.804228 -3348.921470 1052.000000
-2951.803878 -3348.958896 1052.000000
-2953.803528 -3348.996323 1052.000000
-2955.803177 -3349.033749 1052.000000
-2957.802827 -3349.071176 1052.000000
-2959.802477 -3349.108603 1052.000000
-2961.802127 -3349.146029 1052.000000
-2963.801776 -3349.183456 1052.000000
-2965.801426 -3349.220882 1052.000000
-2967.801076 -3349.258309 1052.000000
-2969.800726 -3349.295736 1052.000000
-2971.800376 -3349.333162 1052.000000
-2973.800025 -3349.370589 1052.000000
-2975.799675 -3349.408015 1052.000000
-2977.799325 -3349.445442 1052.000000
-2979.798975 -3349.482869 1052.000000
-2981.798624 -3349.520295 1052.000000
-2983.798274 -3349.557722 1052.000000
-2985.797924 -3349.595148 1052.000000
-2987.797574 -3349.632575 1052.000000
-2989.797224 -3349.670002 1052.000000
-2991.796873 -3349.707428 1052.000000
-2993.796523 -3349.744855 1052.000000
-2995.796173 -3349.782281 1052.000000
-2997.795823 -3349.819708 1052.000000
-2999.795473 -3349.857135 1052.000000
-3001.795122 -3349.894561 1052.000000
-3003.794772 -3349.931988 1052.000000
-3005.794422 -3349.969414 1052.000000
-3007.794072 -3350.006841 1052.000000
-3009.793721 -3350.044268 1052.000000
-3011.793371 -3350.081694 1052.000000
-3013.793021 -3350.119121 1052.000000
-3015.792671 -3350.156547 1052.000000
-3017.792321 -3350.193974 1052.000000
-3019.791970 -3350.231401 1052.000000
-3021.791620 -3350.268827 1052.000000
-3023.791270 -3350.306254 1052.000000
-3025.790920 -3350.343680 1052.000000
-3027.790569 -3350.381107 1052.000000
-3029.790219 -3350.418534 1052.000000
-3031.789869 -3350.455960 1052.000000
-3033.789519 -3350.493387 1052.000000
-3035.789169 -3350.530813 1052.000000
-3037.788818 -3350.568240 1052.000000
-3039.788468 -3350.605667 1052.000000
-3041.788118 -3350.643093 1052.000000
-3043.787768 -3350.680520 1052.000000
-3045.787418 -3350.717946 1052.000000
-3047.787067 -3350.755373 1052.000000
-3049.786717 -3350.792800 1052.000000
-3051.786367 -3350.830226 1052.000000
-3053.786017 -3350.867653 1052.000000
-3055.785666 -3350.905079 1052.000000
-3057.785316 -3350.942506 1052.000000
-3059.784966 -3350.979933 1052.000000
-3061.784616 -3351.017359 1052.000000
-3063.784266 -3351.054786 1052.000000
-3065.783915 -3351.092212 1052.000000
-3067.783565 -3351.129639 1052.000000
-3069.783215 -3351.167066 1052.000000
-3071.782865 -3351.204492 1052.000000
-3073.782514 -3351.241919 1052.000000
-3075.782164 -3351.279345 1052.000000
-3077.781814 -3351.316772 1052.000000
-3079.781464 -3351.354199 1052.000000
-3081.781114 -3351.391625 1052.000000
-3083.780763 -3351.429052 1052.000000
-3085.780413 -3351.466478 1052.000000
-3087.780063 -3351.503905 1052.000000
-3089.779713 -3351.541332 1052.000000
-3091.779362 -3351.578758 1052.000000
-3093.779012 -3351.616185 1052.000000
-3095.778662 -3351.653611 1052.000000
-3097.778312 -3351.691038 1052.000000
-3099.777962 -3351.728465 1052.000000
-3101.777611 -3351.765891 1052.000000
-3103.777261 -3351.803318 1052.000000
-3105.776911 -3351.840744 1052.000000
-3107.776561 -3351.878171 1052.000000
-3109.776211 -3351.915598 1052.000000
-3111.775860 -3351.953024 1052.000000
-3113.775510 -3351.990451 1052.000000
-3115.775160 -3352.027877 1052.000000
-3117.774810 -3352.065304 1052.000000
-3119.774459 -3352.102731 1052.000000
-3121.774109 -3352.140157 1052.000000
-3123.773759 -3352.177584 1052.000000
-3125.773409 -3352.215010 1052.000000
-3127.773059 -3352.252437 1052.000000
-3129.772708 -3352.289864 1052.000000
-3131.772358 -3352.327290 1052.000000
-3133.772008 -3352.364717 1052.000000
-3135.771658 -3352.402143 1052.000000
-3137.771307 -3352.439570 1052.000000
-3139.770957 -3352.476997 1052.000000
-3141.770607 -3352.514423 1052.000000
-3143.770257 -3352.551850 1052.000000
-3145.769907 -3352.589276 1052.000000
-3147.769556 -3352.626703 1052.000000
-3149.769206 -3352.664130 1052.000000
-3151.768856 -3352.701556 1052.000000
-3153.768506 -3352.738983 1052.000000
-3155.768156 -3352.776409 1052.000000
-3157.767805 -3352.813836 1052.000000
-3159.767455 -3352.851263 1052.000000
-3161.767105 -3352.888689 1052.000000
-3163.766755 -3352.926116 1052.000000
-3165.766404 -3352.963542 1052.000000
-3167.766054 -3353.000969 1052.000000
-3169.765704 -3353.038396 1052.000000
-3171.765354 -3353.075822 1052.000000
-3173.765004 -3353.113249 1052.000000
-3175.764653 -3353.150675 1052.000000
-3177.764303 -3353.188102 1052.000000
-3179.763953 -3353.225529 1052.000000
-3181.763603 -3353.262955 1052.000000
-3183.763252 -3353.300382 1052.000000
-3185.762902 -3353.337808 1052.000000
-3187.762552 -3353.375235 1052.000000
-3189.762202 -3353.412662 1052.000000
-3191.761852 -3353.450088 1052.000000
-3193.761501 -3353.487515 1052.000000
-3195.761151 -3353.524941 1052.000000
-3197.760801 -3353.562368 1052.000000
-3199.760451 -3353.599795 1052.000000
-3201.760100 -3353.637221 1052.000000
-3203.759750 -3353.674648 1052.000000
-3205.759400 -3353.712074 1052.000000
-3207.759050 -3353.749501 1052.000000
-3209.758700 -3353.786928 1052.000000
-3211.758349 -3353.824354 1052.000000
-3213.757999 -3353.861781 1052.000000
-3215.757649 -3353.899207 1052.000000
-3217.757299 -3353.936634 1052.000000
-3219.756949 -3353.974061 1052.000000
-3221.756598 -3354.011487 1052.000000
-3223.756248 -3354.048914 1052.000000
-3225.755898 -3354.086340 1052.000000
-3227.755548 -3354.123767 1052.000000
-3229.755197 -3354.161194 1052.000000
-3231.754847 -3354.198620 1052.000000
-3233.754497 -3354.236047 1052.000000
-3235.754147 -3354.273473 1052.000000
-3237.753797 -3354.310900 1052.000000
-3239.753446 -3354.348327 1052.000000
-3241.753096 -3354.385753 1052.000000
-3243.752746 -3354.423180 1052.000000
-3245.752396 -3354.460606 1052.000000
-3247.752045 -3354.498033 1052.000000
-3249.751695 -3354.535460 1052.000000
-3251.751345 -3354.572886 1052.000000
-3253.750995 -3354.610313 1052.000000
-3255.750645 -3354.647739 1052.000000
-3257.750294 -3354.685166 1052.000000
-3259.749944 -3354.722593 1052.000000
-3261.749594 -3354.760019 1052.000000
-3263.749244 -3354.797446 1052.000000
-3265.748894 -3354.834872 1052.000000
-3267.748543 -3354.872299 1052.000000
-3269.748193 -3354.909726 1052.000000
-3271.747843 -3354.947152 1052.000000
-3273.747493 -3354.984579 1052.000000
-3275.747142 -3355.022005 1052.000000
-3277.746792 -3355.059432 1052.000000
-3279.746442 -3355.096859 1052.000000
-3281.746092 -3355.134285 1052.000000
-3283.745742 -3355.171712 1052.000000
-3285.745391 -3355.209138 1052.000000
-3287.745041 -3355.246565 1052.000000
-3289.744691 -3355.283992 1052.000000
-3291.744341 -3355.321418 1052.000000
-3293.743990 -3355.358845 1052.000000
-3295.743640 -3355.396271 1052.000000
-3297.743290 -3355.433698 1052.000000
-3299.742940 -3355.471125 1052.000000
-3301.742590 -3355.508551 1052.000000
-3303.742239 -3355.545978 1052.000000
-3305.741889 -3355.583404 1052.000000
-3307.741539 -3355.620831 1052.000000
-3309.741189 -3355.658258 1052.000000
-3311.740838 -3355.695684 1052.000000
-3313.740488 -3355.733111 1052.000000
-3315.740138 -3355.770537 1052.000000
-3317.739788 -3355.807964 1052.000000
-3319.739438 -3355.845391 1052.000000
-3321.739087 -3355.882817 1052.000000
-3323.738737 -3355.920244 1052.000000
-3325.738387 -3355.957670 1052.000000
-2368.000000 -512.000000 1052.000000
-2368.000000 -512.000000 1052.000000
-2367.626032 -513.964726 1052.000000
-2367.252065 -515.929452 1052.000000
-2366.878097 -517.894178 1052.000000
-2366.504129 -519.858904 1052.000000
-2366.130161 -521.823630 1052.000000
-2365.756194 -523.788356 1052.000000
-2365.382226 -525.753082 1052.000000
-2365.008258 -527.717808 1052.000000
-2364.634290 -529.682534 1052.000000
-2364.260323 -531.647260 1052.000000
-2363.886355 -533.611986 1052.000000
-2363.512387 -535.576712 1052.000000
-2363.138420 -537.541438 1052.000000
-2362.764452 -539.506164 1052.000000
-2362.390484 -541.470890 1052.000000
-2362.016516 -543.435616 1052.000000
-2361.642549 -545.400341 1052.000000
-2361.268581 -547.365067 1052.000000
-2360.894613 -549.329793 1052.000000
-2360.520645 -551.294519 1052.000000
-2360.146678 -553.259245 1052.000000
-2359.772710 -555.223971 1052.000000
-2359.398742 -557.188697 1052.000000
-2359.024775 -559.153423 1052.000000
-2358.650807 -561.118149 1052.000000
-2358.276839 -563.082875 1052.000000
-2357.902871 -565.047601 1052.000000
-2357.528904 -567.012327 1052.000000
-2357.154936 -568.977053 1052.000000
-2356.780968 -570.941779 1052.000000
-2356.407000 -572.906505 1052.000000
-2356.033033 -574.871231 1052.000000
-2355.659065 -576.835957 1052.000000
-2355.285097 -578.800683 1052.000000
-2354.911130 -580.765409 1052.000000
-2354.537162 -582.730135 1052.000000
-2354.163194 -584.694861 1052.000000
-2353.789226 -586.659587 1052.000000
-2353.415259 -588.624313 1052.000000
-2353.041291 -590.589039 1052.000000
-2352.667323 -592.553765 1052.000000
-2352.293355 -594.518491 1052.000000
-2351.919388 -596.483217 1052.000000
-2351.545420 -598.447943 1052.000000
-2351.171452 -600.412669 1052.000000
-2350.797485 -602.377395 1052.000000
-2350.423517 -604.342121 1052.000000
-2350.049549 -606.306847 1052.000000
-2349.675581 -608.271573 1052.000000
-2349.301614 -610.236299 1052.000000
-2348.927646 -612.201024 1052.000000
-2348.553678 -614.165750 1052.000000
-2348.179710 -616.130476 1052.000000
-2347.805743 -618.095202 1052.000000
-2347.431775 -620.059928 1052.000000
-2347.057807 -622.024654 1052.000000
-2346.683840 -623.989380 1052.000000
-2346.309872 -625.954106 1052.000000
-2345.935904 -627.918832 1052.000000
-2345.561936 -629.883558 1052.000000
-2345.187969 -631.848284 1052.000000
-2344.814001 -633.813010 1052.000000
-2344.440033 -635.777736 1052.000000
-2344.066065 -637.742462 1052.000000
-2343.692098 -639.707188 1052.000000
-2343.318130 -641.671914 1052.000000
-2342.944162 -643.636640 1052.000000
-2342.570195 -645.601366 1052.000000
-2342.196227 -647.566092 1052.000000
-2341.822259 -649.530818 1052.000000
-2341.448291 -651.495544 1052.000000
-2341.074324 -653.460270 1052.000000
-2340.700356 -655.424996 1052.000000
-2340.326388 -657.389722 1052.000000
-2339.952420 -659.354448 1052.000000
-2339.578453 -661.319174 1052.000000
-2339.204485 -663.283900 1052.000000
-2338.830517 -665.248626 1052.000000
-2338.456550 -667.213352 1052.000000
-2338.082582 -669.178078 1052.000000
-2337.708614 -671.142804 1052.000000
-2337.334646 -673.107530 1052.000000
-2336.960679 -675.072256 1052.000000
-2336.586711 -677.036982 1052.000000
-2336.212743 -679.001707 1052.000000
-2335.838775 -680.966433 1052.000000
-2335.464808 -682.931159 1052.000000
-2335.090840 -684.895885 1052.000000
-2334.716872 -686.860611 1052.000000
-2334.342905 -688.825337 1052.000000
-2333.968937 -690.790063 1052.000000
-2333.594969 -692.754789 1052.000000
-2333.221001 -694.719515 1052.000000
-2332.847034 -696.684241 1052.000000
-2332.473066 -698.648967 1052.000000
-2332.099098 -700.613693 1052.000000
-2331.725130 -702.578419 1052.000000
-2331.351163 -704.543145 1052.000000
-2330.977195 -706.507871 1052.000000
-2330.603227 -708.472597 1052.000000
-2330.229260 -710.437323 1052.000000
-2329.855292 -712.402049 1052.000000
-2329.481324 -714.366775 1052.000000
-2329.107356 -716.331501 1052.000000
-2328.733389 -718.296227 1052.000000
-2328.359421 -720.260953 1052.000000
-2327.985453 -722.225679 1052.000000
-2327.611485 -724.190405 1052.000000
-2327.237518 -726.155131 1052.000000
-2326.863550 -728.119857 1052.000000
-2326.489582 -730.084583 1052.000000
-2326.115615 -732.049309 1052.000000
-2325.741647 -734.014035 1052.000000
-2325.367679 -735.978761 1052.000000
-2324.993711 -737.943487 1052.000000
-2324.619744 -739.908213 1052.000000
-2324.245776 -741.872939 1052.000000
-2323.871808 -743.837665 1052.000000
-2323.497840 -745.802390 1052.000000
-2323.123873 -747.767116 1052.000000
-2322.749905 -749.731842 1052.000000
-2322.375937 -751.696568 1052.000000
-2322.001970 -753.661294 1052.000000
-2321.628002 -755.626020 1052.000000
-2321.254034 -757.590746 1052.000000
-2320.880066 -759.555472 1052.000000
-2320.506099 -761.520198 1052.000000
-2320.132131 -763.484924 1052.000000
-2319.758163 -765.449650 1052.000000
-2319.384195 -767.414376 1052.000000
-2319.010228 -769.379102 1052.000000
-2318.636260 -771.343828 1052.000000
-2318.262292 -773.308554 1052.000000
-2317.888325 -775.273280 1052.000000
-2317.514357 -777.238006 1052.000000
-2317.140389 -779.202732 1052.000000
-2316.766421 -781.167458 1052.000000
-2316.392454 -783.132184 1052.000000
-2316.018486 -785.096910 1052.000000
-2315.644518 -787.061636 1052.000000
-2315.270550 -789.026362 1052.000000
-2314.896583 -790.991088 1052.000000
-2314.522615 -792.955814 1052.000000
-2314.148647 -794.920540 1052.000000
-2313.774680 -796.885266 1052.000000
-2313.400712 -798.849992 1052.000000
-2313.026744 -800.814718 1052.000000
-2312.652776 -802.779444 1052.000000
-2312.278809 -804.744170 1052.000000
-2311.904841 -806.708896 1052.000000
-2311.530873 -808.673622 1052.000000
-2311.156905 -810.638348 1052.000000
-2310.782938 -812.603073 1052.000000
-2310.408970 -814.567799 1052.000000
-2310.035002 -816.532525 1052.000000
-2309.661035 -818.497251 1052.000000
-2309.287067 -820.461977 1052.000000
-2308.913099 -822.426703 1052.000000
-2308.539131 -824.391429 1052.000000
-2308.165164 -826.356155 1052.000000
-2307.791196 -828.320881 1052.000000
-2307.417228 -830.285607 1052.000000
-2307.043260 -832.250333 1052.000000
-2306.669293 -834.215059 1052.000000
-2306.295325 -836.179785 1052.000000
-2305.921357 -838.144511 1052.000000
-2305.547390 -840.109237 1052.000000
-2305.173422 -842.073963 1052.000000
-2304.799454 -844.038689 1052.000000
-2304.425486 -846.003415 1052.000000
-2304.051519 -847.968141 1052.000000
-2303.677551 -849.932867 1052.000000
-2303.303583 -851.897593 1052.000000
-2302.929615 -853.862319 1052.000000
-2302.555648 -855.827045 1052.000000
-2302.181680 -857.791771 1052.000000
-2301.807712 -859.756497 1052.000000
-2301.433745 -861.721223 1052.000000
-2301.059777 -863.685949 1052.000000
-2300.685809 -865.650675 1052.000000
-2300.311841 -867.615401 1052.000000
-2299.937874 -869.580127 1052.000000
-2299.563906 -871.544853 1052.000000
-2299.189938 -873.509579 1052.000000
-2298.815970 -875.474305 1052.000000
-2298.442003 -877.439031 1052.000000
-2298.068035 -879.403756 1052.000000
-2297.694067 -881.368482 1052.000000
-2297.320100 -883.333208 1052.000000
-2296.946132 -885.297934 1052.000000
-2296.572164 -887.262660 1052.000000
-2296.198196 -889.227386 1052.000000
-2295.824229 -891.192112 1052.000000
-2295.450261 -893.156838 1052.000000
-2295.076293 -895.121564 1052.000000
-2294.702325 -897.086290 1052.000000
-2294.328358 -899.051016 1052.000000
-2293.954390 -901.015742 1052.000000
-2293.580422 -902.980468 1052.000000
-2293.206455 -904.945194 1052.000000
-2292.832487 -906.909920 1052.000000
-2292.458519 -908.874646 1052.000000
-2292.084551 -910.839372 1052.000000
-2291.710584 -912.804098 1052.000000
-2291.336616 -914.768824 1052.000000
-2290.962648 -916.733550 1052.000000
-2290.588680 -918.698276 1052.000000
-2290.214713 -920.663002 1052.000000
-2289.840745 -922.627728 1052.000000
-2289.466777 -924.592454 1052.000000
-2289.092810 -926.557180 1052.000000
-2288.718842 -928.521906 1052.000000
-2288.344874 -930.486632 1052.000000
-2287.970906 -932.451358 1052.000000
-2287.596939 -934.416084 1052.000000
-2287.222971 -936.380810 1052.000000
-2286.849003 -938.345536 1052.000000
-2286.475035 -940.310262 1052.000000
-2286.101068 -942.274988 1052.000000
-2285.727100 -944.239713 1052.000000
-2285.353132 -946.204439 1052.000000
-2284.979165 -948.169165 1052.000000
-2284.605197 -950.133891 1052.000000
-2284.231229 -952.098617 1052.000000
-2283.857261 -954.063343 1052.000000
-2283.483294 -956.028069 1052.000000
-2283.109326 -957.992795 1052.000000
-2282.735358 -959.957521 1052.000000
-2282.361390 -961.922247 1052.000000
-2281.987423 -963.886973 1052.000000
-2281.613455 -965.851699 1052.000000
-2281.239487 -967.816425 1052.000000
-2280.865520 -969.781151 1052.000000
-2280.491552 -971.745877 1052.000000
-2280.117584 -973.710603 1052.000000
-2279.743616 -975.675329 1052.000000
-2279.369649 -977.640055 1052.000000
-2278.995681 -979.604781 1052.000000
-2278.621713 -981.569507 1052.000000
-2278.247745 -983.534233 1052.000000
-2277.873778 -985.498959 1052.000000
-2277.499810 -987.463685 1052.000000
-2277.125842 -989.428411 1052.000000
-2276.751875 -991.393137 1052.000000
-2276.377907 -993.357863 1052.000000
-2276.003939 -995.322589 1052.000000
-2275.629971 -997.287315 1052.000000
-2275.256004 -999.252041 1052.000000
-2274.882036 -1001.216767 1052.000000
-2274.508068 -1003.181493 1052.000000
-2274.134100 -1005.146219 1052.000000
-2273.760133 -1007.110945 1052.000000
-2273.386165 -1009.075671 1052.000000
-2273.012197 -1011.040396 1052.000000
-2272.638230 -1013.005122 1052.000000
-2272.264262 -1014.969848 1052.000000
-2271.890294 -1016.934574 1052.000000
-2271.516326 -1018.899300 1052.000000
-2271.142359 -1020.864026 1052.000000
-2270.768391 -1022.828752 1052.000000
-2270.394423 -1024.793478 1052.000000
-2270.020455 -1026.758204 1052.000000
-2269.646488 -1028.722930 1052.000000
-2269.272520 -1030.687656 1052.000000
-2268.898552 -1032.652382 1052.000000
-2268.524585 -1034.617108 1052.000000
-2268.150617 -1036.581834 1052.000000
-2267.776649 -1038.546560 1052.000000
-2267.402681 -1040.511286 1052.000000
-2267.028714 -1042.476012 1052.000000
-2266.654746 -1044.440738 1052.000000
-2266.280778 -1046.405464 1052.000000
-2265.906810 -1048.370190 1052.000000
-2265.532843 -1050.334916 1052.000000
-2265.158875 -1052.299642 1052.000000
-2264.784907 -1054.264368 1052.000000
-2264.410940 -1056.229094 1052.000000
-2264.036972 -1058.193820 1052.000000
-2263.663004 -1060.158546 1052.000000
-2263.289036 -1062.123272 1052.000000
-2262.915069 -1064.087998 1052.000000
-2262.541101 -1066.052724 1052.000000
-2262.167133 -1068.017450 1052.000000
-2261.793165 -1069.982176 1052.000000
-2261.419198 -1071.946902 1052.000000
-2261.045230 -1073.911628 1052.000000
-2260.671262 -1075.876354 1052.000000
-2260.297295 -1077.841079 1052.000000
-2259.923327 -1079.805805 1052.000000
-2259.549359 -1081.770531 1052.000000
-2259.175391 -1083.735257 1052.000000
-2258.801424 -1085.699983 1052.000000
-2258.427456 -1087.664709 1052.000000
-2258.053488 -1089.629435 1052.000000
-2257.679520 -1091.594161 1052.000000
-2257.305553 -1093.558887 1052.000000
-2256.931585 -1095.523613 1052.000000
-2256.557617 -1097.488339 1052.000000
-2256.183650 -1099.453065 1052.000000
-2255.809682 -1101.417791 1052.000000
-2255.435714 -1103.382517 1052.000000
-2255.061746 -1105.347243 1052.000000
-2254.687779 -1107.311969 1052.000000
-2254.313811 -1109.276695 1052.000000
-2253.939843 -1111.241421 1052.000000
-2253.565875 -1113.206147 1052.000000
-2253.191908 -1115.170873 1052.000000
-2252.817940 -1117.135599 1052.000000
-2252.443972 -1119.100325 1052.000000
-2252.070005 -1121.065051 1052.000000
-2251.696037 -1123.029777 1052.000000
-2251.322069 -1124.994503 1052.000000
-2250.948101 -1126.959229 1052.000000
-2250.574134 -1128.923955 1052.000000
-2250.200166 -1130.888681 1052.000000
-2249.826198 -1132.853407 1052.000000
-2249.452230 -1134.818133 1052.000000
-2249.078263 -1136.782859 1052.000000
-2248.704295 -1138.747585 1052.000000
-2248.330327 -1140.712311 1052.000000
-2247.956360 -1142.677037 1052.000000
-2247.582392 -1144.641762 1052.000000
-2247.208424 -1146.606488 1052.000000
-2246.834456 -1148.571214 1052.000000
-2246.460489 -1150.535940 1052.000000
-2246.086521 -1152.500666 1052.000000
-2245.712553 -1154.465392 1052.000000
-2245.338585 -1156.430118 1052.000000
-2244.964618 -1158.394844 1052.000000
-2244.590650 -1160.359570 1052.000000
-2244.216682 -1162.324296 1052.000000
-2243.842715 -1164.289022 1052.000000
-2243.468747 -1166.253748 1052.000000
-2243.094779 -1168.218474 1052.000000
-2242.720811 -1170.183200 1052.000000
-2242.346844 -1172.147926 1052.000000
-2241.972876 -1174.112652 1052.000000
-2241.598908 -1176.077378 1052.000000
-2241.224940 -1178.042104 1052.000000
-2240.850973 -1180.006830 1052.000000
-2240.477005 -1181.971556 1052.000000
-2240.103037 -1183.936282 1052.000000
-2239.729070 -1185.901008 1052.000000
-2239.355102 -1187.865734 1052.000000
-2238.981134 -1189.830460 1052.000000
-2238.607166 -1191.795186 1052.000000
-2238.233199 -1193.759912 1052.000000
-2237.859231 -1195.724638 1052.000000
-2237.485263 -1197.689364 1052.000000
-2237.111295 -1199.654090 1052.000000
-2236.737328 -1201.618816 1052.000000
-2236.363360 -1203.583542 1052.000000
-2235.989392 -1205.548268 1052.000000
-2235.615425 -1207.512994 1052.000000
-2235.241457 -1209.477720 1052.000000
-2234.867489 -1211.442445 1052.000000
-2234.493521 -1213.407171 1052.000000
-2234.119554 -1215.371897 1052.000000
-2233.745586 -1217.336623 1052.000000
-2233.371618 -1219.301349 1052.000000
-2232.997650 -1221.266075 1052.000000
-2232.623683 -1223.230801 1052.000000
-2232.249715 -1225.195527 1052.000000
-2231.875747 -1227.160253 1052.000000
-2231.501780 -1229.124979 1052.000000
-2231.127812 -1231.089705 1052.000000
-2230.753844 -1233.054431 1052.000000
-2230.379876 -1235.019157 1052.000000
-2230.005909 -1236.983883 1052.000000
-2229.631941 -1238.948609 1052.000000
-2229.257973 -1240.913335 1052.000000
-2228.884005 -1242.878061 1052.000000
-2228.510038 -1244.842787 1052.000000
-2228.136070 -1246.807513 1052.000000
-2227.762102 -1248.772239 1052.000000
-2227.388135 -1250.736965 1052.000000
-2227.014167 -1252.701691 1052.000000
-2226.640199 -1254.666417 1052.000000
-2226.266231 -1256.631143 1052.000000
-2225.892264 -1258.595869 1052.000000
-2225.518296 -1260.560595 1052.000000
-2225.144328 -1262.525321 1052.000000
-2224.770360 -1264.490047 1052.000000
-2224.396393 -1266.454773 1052.000000
-2224.022425 -1268.419499 1052.000000
-2223.648457 -1270.384225 1052.000000
-2223.274490 -1272.348951 1052.000000
-2222.900522 -1274.313677 1052.000000
-2222.526554 -1276.278403 1052.000000
-2222.152586 -1278.243128 1052.000000
-2221.778619 -1280.207854 1052.000000
-2221.404651 -1282.172580 1052.000000
-2221.030683 -1284.137306 1052.000000
-2220.656715 -1286.102032 1052.000000
-2220.282748 -1288.066758 1052.000000
-2219.908780 -1290.031484 1052.000000
-2219.534812 -1291.996210 1052.000000
-2219.160845 -1293.960936 1052.000000
-2218.786877 -1295.925662 1052.000000
-2218.412909 -1297.890388 1052.000000
-2218.038941 -1299.855114 1052.000000
-2217.664974 -1301.819840 1052.000000
-2217.291006 -1303.784566 1052.000000
-2216.917038 -1305.749292 1052.000000
-2216.543070 -1307.714018 1052.000000
-2216.169103 -1309.678744 1052.000000
-2215.795135 -1311.643470 1052.000000
-2215.421167 -1313.608196 1052.000000
-2215.047200 -1315.572922 1052.000000
-2214.673232 -1317.537648 1052.000000
-2214.299264 -1319.502374 1052.000000
-2213.925296 -1321.467100 1052.000000
-2213.551329 -1323.431826 1052.000000
-2213.177361 -1325.396552 1052.000000
-2212.803393 -1327.361278 1052.000000
-2212.429425 -1329.326004 1052.000000
-2212.055458 -1331.290730 1052.000000
-2211.681490 -1333.255456 1052.000000
-2211.307522 -1335.220182 1052.000000
-2210.933555 -1337.184908 1052.000000
-2210.559587 -1339.149634 1052.000000
-2210.185619 -1341.114360 1052.000000
-2209.811651 -1343.079085 1052.000000
-2209.437684 -1345.043811 1052.000000
-2209.063716 -1347.008537 1052.000000
-2208.689748 -1348.973263 1052.000000
-2208.315780 -1350.937989 1052.000000
-2207.941813 -1352.902715 1052.000000
-2207.567845 -1354.867441 1052.000000
-2207.193877 -1356.832167 1052.000000
-2206.819910 -1358.796893 1052.000000
-2206.445942 -1360.761619 1052.000000
-2206.071974 -1362.726345 1052.000000
-2205.698006 -1364.691071 1052.000000
-2205.324039 -1366.655797 1052.000000
-2204.950071 -1368.620523 1052.000000
